ply
format ascii 1.0
element vertex 1051
property float x
property float y
property float z
property uchar red
property uchar green
property uchar blue
end_header
150.099869 205.199814 683.567993 95 78 35
151.109146 205.280334 683.836243 95 80 37
156.790451 205.252960 683.744995 176 166 131
157.568558 205.028961 682.998840 201 195 161
158.559708 205.083206 683.179565 199 194 164
170.037125 205.184464 683.516846 227 228 223
171.055405 205.266479 683.790100 219 220 214
172.046127 205.314713 683.950745 220 221 213
172.777771 205.054932 683.085388 223 224 216
175.072174 204.408585 680.932251 213 216 205
176.023941 204.414902 680.953247 211 213 199
176.989624 204.437210 681.027588 209 210 194
177.904160 204.400528 680.905396 210 209 188
178.757233 204.293976 680.550415 207 205 180
179.632126 204.213364 680.281921 201 196 167
181.697342 204.409515 680.935303 189 180 141
182.553680 204.308777 680.599731 173 164 123
184.726791 204.620453 681.638000 166 153 109
185.768723 204.724731 681.985352 163 146 100
187.887146 204.967789 682.795044 154 132 82
188.888657 205.024887 682.985229 130 107 57
189.908752 205.101456 683.240295 118 91 44
191.008530 205.262894 683.778137 117 93 49
192.048035 205.358292 684.095886 116 94 57
192.929321 205.284393 683.849731 125 109 83
195.079727 205.547409 684.725891 156 153 146
196.224716 205.750168 685.401367 166 168 167
196.781403 205.337128 684.025391 180 185 189
197.708374 205.312561 683.943542 187 189 188
198.600296 205.251984 683.741760 201 203 202
205.126068 205.126068 683.322327 213 215 210
206.320602 205.369797 684.134277 214 217 210
214.093796 205.530045 684.668030 210 211 193
215.075836 205.559204 684.765198 211 212 194
216.065521 205.595383 684.885742 209 210 192
217.055542 205.631561 685.006226 203 204 186
218.042511 205.664566 685.116150 201 202 184
219.038986 205.706192 685.254822 201 202 184
220.035873 205.747818 685.393555 198 199 181
221.033127 205.789474 685.532288 198 199 181
222.035126 205.835159 685.684448 199 201 180
223.019470 205.864151 685.781006 201 203 182
224.022690 205.910233 685.934509 202 204 183
225.019867 205.950394 686.068359 196 198 177
225.991562 205.966995 686.123596 188 190 169
226.994797 206.012070 686.273804 188 190 169
228.018631 206.075409 686.484802 193 195 174
229.017426 206.115677 686.618958 194 193 172
230.076447 206.209595 686.931763 190 189 168
230.852310 206.049988 686.400085 188 187 167
231.841324 206.081161 686.503967 188 187 167
232.845947 206.125916 686.653076 188 187 167
233.835754 206.157242 686.757385 185 186 168
234.822144 206.185318 686.850891 186 187 169
235.965012 206.349976 687.399414 189 190 172
236.927856 206.356537 687.421265 188 189 173
237.892807 206.364853 687.448975 188 189 173
238.850281 206.366638 687.454956 187 188 170
239.820877 206.379730 687.498535 186 187 169
240.772186 206.376175 687.486694 183 184 166
241.883606 206.509323 687.930298 181 182 164
242.903458 206.563568 688.110962 180 181 163
258.598328 207.647736 691.722595 159 152 124
259.779541 207.823654 692.308594 160 153 125
260.962799 207.999863 692.895630 161 154 126
266.056915 208.218460 693.623779 160 158 137
282.081879 207.243835 690.377075 213 216 207
283.357361 207.475204 691.147888 210 213 204
284.665466 207.728851 691.992798 212 215 204
295.604980 207.982666 692.838318 190 204 179
296.619141 208.018616 692.958069 189 193 168
332.157837 209.172287 696.801208 89 160 162
333.584595 209.460098 697.759949 91 162 164
340.088745 204.621658 681.641968 86 158 157
401.817169 213.774643 712.132751 24 73 70
407.843811 202.982193 676.180542 32 78 76
409.335297 203.256149 677.093201 32 78 76
0.000000 216.997620 719.538025 75 149 152
16.999594 216.994797 719.528687 82 149 155
51.246986 205.936966 682.862183 58 109 102
52.266163 206.213760 683.780029 56 109 101
113.509407 206.987732 686.346436 217 220 203
114.557419 207.158005 686.911011 215 217 196
118.434181 203.969986 676.339905 174 156 116
119.321526 203.880081 676.041809 163 144 102
120.208183 203.790451 675.744568 154 140 101
131.396301 205.129486 680.184692 181 176 154
150.229340 206.327637 684.157654 100 83 40
151.198532 206.352722 684.240784 97 82 39
153.097275 206.348495 684.226807 101 83 47
154.071289 206.379440 684.329407 97 81 45
155.077652 206.453064 684.573547 91 75 39
157.733658 206.194000 683.714478 176 168 132
158.567688 206.043030 683.213928 205 199 165
159.514694 206.039825 683.203247 206 201 171
171.066299 206.229919 683.833618 222 222 214
172.057068 206.278366 683.994263 222 222 212
173.045029 206.322922 684.141968 220 220 210
175.045181 205.323273 680.827271 214 216 205
175.996780 205.329590 680.848206 211 213 200
176.906235 205.286911 680.706726 211 212 196
177.909698 205.353210 680.926575 212 211 191
179.666489 205.198059 680.412048 202 196 172
180.552109 205.129898 680.186035 193 187 161
181.697769 205.356339 680.936890 189 180 141
182.578079 205.282089 680.690735 175 166 125
185.745773 205.647110 681.901062 164 150 105
186.901993 205.876831 682.662781 165 149 100
189.883347 206.023422 683.148926 121 95 44
191.097626 206.309387 684.097107 122 95 48
192.121872 206.388321 684.358887 120 97 56
192.919113 206.223877 683.813599 127 108 78
195.056992 206.474945 684.646118 148 144 133
195.992294 206.457901 684.589600 159 159 157
197.689789 206.243668 683.879211 186 188 187
198.577026 206.178055 683.661621 201 203 202
205.105331 206.054886 683.253235 214 216 211
206.241013 206.241013 683.870422 215 218 211
207.071091 206.121231 683.473206 217 218 212
208.084869 206.184555 683.683167 217 218 212
214.139023 206.525192 684.812683 210 211 195
215.134323 206.567017 684.951416 211 212 194
215.997162 206.481873 684.669067 209 210 192
217.023071 206.552673 684.903809 204 205 187
218.013306 206.589020 685.024353 203 204 186
218.975647 206.598770 685.056641 203 204 186
219.975433 206.643585 685.205261 200 201 183
220.975632 206.688431 685.353943 200 201 183
221.976288 206.733276 685.502686 198 199 181
223.001907 206.800919 685.726990 199 200 182
223.997681 206.840408 685.857910 200 202 181
224.993790 206.879898 685.988831 197 199 178
226.257004 207.163574 686.929504 191 193 172
227.223648 207.174500 686.965759 189 191 170
228.149597 207.148376 686.879089 192 194 173
229.175110 207.212509 687.091736 193 192 172
230.151428 207.231781 687.155640 191 190 170
230.835098 206.988510 686.348999 187 189 168
231.803940 207.001862 686.393311 186 188 167
232.793091 207.033203 686.497192 185 186 168
233.714722 207.004471 686.401917 184 185 167
234.771988 207.095612 686.704163 185 186 168
235.913116 207.259689 687.248230 188 189 173
236.875565 207.266113 687.269531 187 188 172
237.837585 207.272125 687.289429 186 187 171
238.762955 207.246246 687.203613 184 185 169
239.757050 207.279999 687.315552 183 184 166
240.726959 207.292679 687.357544 182 183 165
241.825760 207.415771 687.765747 180 181 163
242.842728 207.467987 687.938904 178 180 159
245.746979 207.498428 688.039795 178 172 150
259.743927 208.757187 692.213684 161 156 127
260.924164 208.931900 692.793091 161 156 127
262.120911 209.118500 693.411804 158 151 125
287.093964 209.058350 693.212341 213 215 204
288.419312 209.321030 694.083374 213 215 202
289.748016 209.584396 694.956665 213 215 202
294.507660 208.850204 692.522156 200 212 190
295.518036 208.884064 692.634460 193 207 182
296.530182 208.918976 692.750244 193 197 174
332.121765 210.117844 696.725525 89 163 164
333.546967 210.406097 697.681274 85 159 160
407.841858 203.920929 676.177307 32 78 76
409.333282 204.196167 677.089905 32 78 76
0.000000 217.997559 719.537842 75 148 154
51.264244 206.955658 683.092163 58 109 102
52.283783 207.233887 684.010559 55 108 100
113.593842 208.096283 686.856995 217 220 203
114.687256 208.348511 687.689514 216 217 199
117.177139 204.356918 674.514648 200 187 155
118.194458 204.495178 674.970947 185 170 137
136.639145 208.303009 687.539368 180 175 146
149.559769 207.668976 685.446594 106 89 45
153.184418 207.417404 684.616272 103 85 45
155.169495 207.527283 684.978943 96 81 40
156.130020 207.538681 685.016541 94 79 38
157.728943 207.138016 683.694092 137 125 87
158.707870 207.175568 683.817993 178 168 133
159.563324 207.052399 683.411499 200 194 162
171.077179 207.193481 683.877136 223 221 209
172.068024 207.242142 684.037781 224 222 209
173.054855 207.285461 684.180786 222 220 207
173.346649 206.500381 681.589478 215 215 203
174.183975 206.370148 681.159607 214 216 203
175.018188 206.237640 680.722290 213 215 202
175.969666 206.244003 680.743286 211 213 199
177.014420 206.359055 681.122986 211 212 196
177.922150 206.313980 680.974182 212 211 191
178.845551 206.287460 680.886658 210 208 187
179.683334 206.162994 680.475830 206 200 176
180.615234 206.147232 680.423828 199 193 167
181.723969 206.332428 681.035095 193 181 143
182.531616 206.175613 680.517456 182 170 132
183.439407 206.132965 680.376709 176 164 124
187.792404 206.761322 682.450745 164 146 96
189.930405 207.024124 683.318176 127 101 50
190.966492 207.117889 683.627625 127 101 52
191.988663 207.195694 683.884460 125 101 57
192.947449 207.204636 683.914001 129 109 76
193.859695 207.163803 683.779175 137 122 99
194.305557 206.627365 682.008606 143 135 122
195.987823 207.404587 684.573975 154 153 148
197.048569 207.519745 684.954041 172 174 171
197.662247 207.165222 683.783936 186 188 187
198.553726 207.103882 683.581421 201 203 202
206.166794 207.116867 683.624268 217 220 213
207.265289 207.265289 684.114197 218 219 213
214.119415 207.457932 684.750000 210 211 195
215.095779 207.481766 684.828674 211 212 196
216.091003 207.523499 684.966492 210 211 195
217.056183 207.536194 685.008301 206 207 189
218.035645 207.562317 685.094543 205 206 188
219.015350 207.588455 685.180847 206 207 189
219.950470 207.572296 685.127502 203 204 186
220.943695 207.610870 685.254822 204 205 187
221.972336 207.682266 685.490479 200 201 183
222.967529 207.721893 685.621277 198 199 181
223.963104 207.761520 685.752075 199 200 182
224.959045 207.801147 685.882874 199 201 180
225.964493 207.849182 686.041443 195 197 176
228.098251 208.056137 686.724487 192 194 173
229.066193 208.068466 686.765198 192 194 173
230.051605 208.096451 686.857605 191 193 172
231.019623 208.108582 686.897583 190 192 171
231.987717 208.120667 686.937500 189 190 172
232.955948 208.132782 686.977478 187 188 170
233.676392 207.924301 686.289368 185 186 168
234.901413 208.164673 687.082703 187 188 172
235.870819 208.177475 687.125000 189 190 174
236.718155 208.082886 686.812805 185 186 170
237.701889 208.108490 686.897278 183 184 168
238.693314 208.140564 687.003174 181 182 166
239.725830 208.208069 687.226013 180 181 163
240.744019 208.262680 687.406250 180 181 163
241.764801 208.319077 687.592407 179 180 162
242.780792 208.370911 687.763489 175 177 156
244.718552 208.393158 687.836853 179 174 152
259.739624 209.715683 692.202148 162 156 130
260.919830 209.891235 692.781555 161 155 129
262.102081 210.067108 693.362000 161 155 131
263.243195 210.208862 693.829895 165 159 135
264.136017 210.152008 693.642273 168 163 141
288.211517 210.134155 693.583374 214 216 205
289.531036 210.392548 694.436218 214 216 203
295.431091 209.784943 692.430725 197 209 187
296.441223 209.818787 692.542419 198 201 180
297.451355 209.852432 692.653442 197 191 169
332.081451 211.060501 696.640930 86 160 159
333.559082 211.383377 697.706604 84 158 157
340.065216 210.608566 695.149231 86 160 159
341.477509 210.884125 696.058777 85 159 158
414.481781 210.132614 693.578247 53 101 103
407.930878 204.905380 676.324890 32 78 76
409.331329 205.136154 677.086609 32 78 76
0.000000 218.997498 719.537659 73 146 152
51.281513 207.975021 683.322266 56 109 101
52.301422 208.254761 684.241333 53 109 100
104.949295 208.944504 686.507568 215 216 198
106.050728 209.235214 687.462769 217 218 200
148.675232 208.717148 685.760559 110 92 44
156.484116 208.963547 686.570129 105 90 47
157.192932 208.637909 685.500183 94 79 36
159.652725 208.118744 683.794434 168 158 123
160.554291 208.055542 683.586853 188 179 148
161.495346 208.043991 683.548889 205 198 170
173.335709 207.434540 681.546448 219 218 200
174.289322 207.442184 681.571594 216 217 201
175.223755 207.427032 681.521790 215 216 200
177.026825 207.320190 681.170715 210 211 193
177.934601 207.274872 681.021851 211 210 189
179.696930 207.124344 680.527283 207 201 177
180.593506 207.067947 680.341980 202 195 169
181.750214 207.308838 681.133423 195 181 144
182.550003 207.142227 680.586060 186 172 135
183.456161 207.097412 680.438782 179 167 129
187.854675 207.778656 682.677063 166 150 101
189.822037 207.855133 682.928345 134 111 57
190.847977 207.938828 683.203369 131 105 54
191.957047 208.111832 683.771790 128 104 58
192.903397 208.107605 683.757812 132 110 73
193.836365 208.089035 683.696838 135 120 91
194.242294 207.507614 681.786560 141 133 114
197.642639 208.094894 683.716125 187 189 188
198.542191 208.041824 683.541748 202 204 203
206.209076 208.109619 683.764465 218 221 214
207.415146 208.366592 684.608826 218 219 213
214.079056 208.370285 684.620911 213 211 196
215.068253 208.406860 684.741089 213 211 196
216.063370 208.448807 684.878906 213 211 196
217.035080 208.467896 684.941650 209 207 192
218.014404 208.494125 685.027832 209 208 190
218.994003 208.520386 685.114075 210 209 191
219.973831 208.546631 685.200317 207 206 188
220.953934 208.572891 685.286621 210 209 191
221.935043 208.599899 685.375366 206 205 187
222.933121 208.642532 685.515442 203 202 184
223.891541 208.647842 685.532898 204 203 185
224.870102 208.671844 685.611694 203 202 184
225.920242 208.761749 685.907104 200 199 179
226.929123 208.812943 686.075317 197 196 176
227.922180 208.849213 686.194458 196 195 175
229.014648 208.975861 686.610596 192 194 173
229.982529 208.988281 686.651367 192 194 173
230.950500 209.000656 686.692078 192 194 173
231.936188 209.028900 686.784912 190 191 173
232.935699 209.069336 686.917725 188 189 171
233.880585 209.060608 686.889038 187 188 172
234.849640 209.073471 686.931274 188 189 173
235.813065 209.081223 686.956787 190 191 175
236.674072 208.998474 686.684937 184 185 169
237.667801 209.033142 686.798767 183 184 168
238.647934 209.055588 686.872559 181 182 166
239.678772 209.122101 687.091125 180 181 163
240.694641 209.175110 687.265259 179 180 162
241.712555 209.229446 687.443787 177 178 160
248.372711 209.206253 687.367554 173 168 146
249.485641 209.338516 687.802185 171 166 144
250.600021 209.471024 688.237488 170 165 143
258.670441 210.590408 691.915405 164 160 135
259.735321 210.674194 692.190674 163 159 134
260.915527 210.850540 692.770081 162 158 133
262.097717 211.027206 693.350525 164 158 134
262.965424 210.950272 693.097778 168 162 138
289.206909 211.121048 693.658813 214 216 205
290.552399 211.398590 694.570679 213 215 204
295.356110 210.693771 692.255005 200 209 188
296.388214 210.743576 692.418579 203 202 182
297.362152 210.751816 692.445679 201 194 175
330.656860 211.736404 695.680664 79 155 153
332.083282 212.029846 696.644775 79 155 153
338.929352 206.182007 677.431152 88 160 157
340.054810 206.293655 677.797913 87 159 156
341.181519 206.405396 678.165100 88 160 157
342.309448 206.517273 678.532654 89 161 158
344.876282 206.925751 679.874817 88 160 156
364.599396 208.478516 684.976501 74 146 142
407.925934 205.842819 676.316711 31 77 75
409.329346 206.076157 677.083313 30 76 74
0.000000 219.997406 719.537415 68 141 147
44.107731 210.950012 689.946472 55 110 105
45.127720 211.236130 690.882263 55 110 105
104.947342 209.894684 686.494812 214 215 197
106.039993 210.169342 687.393127 216 218 197
147.674545 209.602600 685.539490 122 102 51
149.744263 209.832733 686.292175 112 96 45
159.517258 210.142502 687.305359 110 97 55
160.659409 210.387329 688.106079 125 113 75
170.343811 209.361130 684.749695 217 212 190
171.388855 209.475250 685.123047 220 216 191
172.398987 209.545746 685.353516 219 215 190
173.329895 208.374756 681.523621 220 218 195
174.220261 208.306808 681.301453 213 212 191
175.137329 208.271423 681.185669 212 214 193
176.054108 208.236038 681.069946 212 214 193
176.970551 208.200653 680.954224 213 212 191
177.980728 208.275330 681.198425 211 209 186
178.530167 207.812897 679.685974 209 205 180
179.714066 208.089981 680.592224 203 198 169
180.610764 208.033325 680.406982 197 190 162
181.776428 208.285492 681.231689 195 179 143
182.653412 208.205963 680.971619 188 174 137
183.472900 208.062057 680.500916 179 167 129
184.316681 207.947037 680.124695 170 161 122
187.744232 208.604706 682.275696 163 149 100
188.796219 208.719437 682.651001 156 139 87
190.821442 208.859268 683.108337 136 110 59
191.847687 208.943024 683.382263 132 105 58
192.879791 209.032288 683.674194 134 111 70
193.818832 209.020325 683.635071 134 117 87
194.230103 208.442032 681.743713 143 131 109
197.591782 208.991318 683.540222 189 191 188
198.522598 208.971161 683.474304 202 204 201
206.173767 209.024078 683.647400 218 221 214
207.379593 209.282166 684.491455 219 220 212
217.019943 209.405212 684.893921 210 208 193
217.993179 209.425766 684.961121 210 209 191
218.972672 209.452133 685.047363 211 210 192
219.952423 209.478500 685.133606 208 207 189
220.932983 209.505402 685.221619 211 210 192
221.922348 209.540421 685.336121 209 208 190
222.900040 209.564133 685.413696 207 206 188
223.869476 209.579926 685.465332 206 205 187
224.847931 209.603989 685.544067 204 203 185
225.885147 209.682419 685.800537 201 200 182
226.884125 209.724823 685.939270 198 197 177
227.885834 209.769363 686.084961 197 196 176
228.982010 209.900177 686.512756 190 192 171
229.949463 209.912384 686.552673 191 193 172
230.917038 209.924591 686.592590 191 192 174
231.884705 209.936768 686.632446 189 190 172
232.860321 209.956024 686.695435 187 188 170
233.829071 209.968948 686.737732 187 188 172
234.797913 209.981873 686.779968 187 188 172
235.766876 209.994812 686.822266 188 189 173
236.630020 209.913727 686.557068 184 185 169
237.623520 209.948502 686.670837 184 185 169
238.617416 209.983322 686.784729 183 184 168
239.616623 210.022537 686.912964 181 182 164
240.666061 210.105301 687.183655 178 179 161
241.650085 210.130508 687.266113 175 176 158
249.458984 210.271942 687.728699 173 168 146
250.594849 210.423172 688.223267 170 165 143
259.736847 211.637436 692.194763 166 162 137
260.858002 211.766632 692.617310 165 161 136
261.987396 211.901566 693.058655 166 162 137
262.948334 211.899750 693.052734 168 163 141
268.031830 211.351273 691.258789 192 194 180
289.070404 211.984955 693.331421 214 216 205
290.429810 212.274261 694.277649 213 215 204
296.383575 211.702545 692.407776 206 203 186
297.287415 211.660950 692.271667 205 197 178
304.660248 212.778580 695.927063 180 183 164
330.553375 212.636673 695.462952 70 146 144
331.959137 212.918381 696.384338 70 149 146
338.932648 207.125488 677.437744 81 156 152
340.058258 207.237717 677.804749 83 155 152
341.185059 207.350021 678.172119 85 157 153
342.313080 207.462463 678.539856 88 160 156
343.442352 207.575058 678.908081 88 159 155
344.712982 207.772202 679.552917 86 157 153
346.090271 208.032394 680.403931 85 156 152
406.436584 206.503571 675.403625 32 78 78
407.921021 206.780243 676.308533 31 77 75
0.000000 220.997345 719.537231 65 138 144
43.104107 211.689041 689.230713 52 107 101
44.127491 212.003830 690.255554 54 109 104
104.928062 210.810013 686.368713 213 216 195
106.029251 211.103287 687.323547 214 218 195
124.769585 207.323898 675.018372 187 182 152
125.742432 207.381180 675.204895 189 184 155
146.500229 210.237350 684.504150 129 108 53
170.383957 210.362320 684.911072 213 208 178
171.393433 210.433044 685.141357 216 211 181
172.403580 210.503815 685.371765 214 209 179
173.414444 210.574677 685.602478 208 204 175
180.560669 208.920975 680.218262 196 190 158
181.802658 209.262451 681.330017 198 180 142
182.660065 209.159958 680.996338 192 176 140
183.459366 208.992386 680.450745 182 170 132
186.780930 209.535980 682.220581 169 160 117
187.811157 209.627609 682.518921 165 153 105
188.731598 209.596405 682.417358 160 144 93
189.827759 209.759659 682.948914 151 130 77
190.798813 209.783768 683.027344 140 115 61
191.820999 209.863571 683.287170 134 108 59
192.850357 209.950378 683.569885 135 112 70
193.801804 209.951950 683.574951 134 115 82
194.707214 209.903885 683.418457 143 128 105
197.565964 209.913834 683.450867 192 194 191
198.502991 209.900314 683.406799 203 205 202
217.000229 210.337936 684.831665 210 208 193
217.979858 210.364838 684.919250 211 209 194
219.933075 210.412155 685.073303 209 208 190
220.912674 210.438385 685.158691 211 210 192
221.898956 210.470673 685.263855 210 209 191
222.876923 210.494873 685.342590 209 208 190
223.856979 210.520813 685.427124 207 206 188
224.825775 210.535995 685.476562 204 203 185
225.851562 210.604187 685.698547 200 199 181
226.848892 210.645401 685.832703 198 197 179
227.849503 210.689285 685.975586 197 196 178
228.931168 210.807449 686.360352 192 193 175
229.862183 210.786484 686.292053 193 194 176
230.865097 210.831345 686.438171 192 193 175
231.833237 210.844223 686.480042 190 191 173
232.809021 210.863922 686.544189 189 190 174
233.777557 210.876907 686.586487 189 190 174
234.746216 210.889893 686.628723 188 189 173
235.713165 210.901245 686.665710 187 188 172
236.585953 210.828613 686.429260 184 185 169
237.579315 210.863571 686.543030 184 185 169
238.572998 210.898529 686.656860 184 185 169
239.554520 210.922501 686.734924 181 182 164
240.601288 211.003525 686.998718 178 179 161
241.587631 211.031097 687.088501 176 177 159
242.604248 211.084808 687.263367 175 177 156
243.621399 211.138550 687.438354 175 177 156
249.438522 211.210403 687.672302 172 170 147
250.575195 211.363052 688.169312 169 167 144
255.383774 212.179749 690.828369 161 159 136
256.491119 212.301651 691.225220 161 159 136
258.557129 212.420532 691.612366 164 162 137
259.689636 212.560776 692.068909 165 163 138
260.808563 212.688889 692.486084 165 163 138
261.759827 212.679855 692.456665 169 164 142
262.904388 212.827347 692.936890 170 165 143
267.983063 212.273315 691.132996 194 196 182
288.890656 212.816116 692.900330 214 216 205
290.213898 213.080627 693.761536 214 216 205
291.540375 213.345779 694.624817 214 214 204
296.287506 212.595917 692.183350 210 204 188
297.296692 212.629654 692.293213 207 199 180
298.195984 212.584885 692.147400 198 192 168
296.533081 207.385483 675.218872 159 182 166
352.202942 215.614517 702.011536 75 147 143
414.250580 219.542877 714.801697 69 134 130
406.431641 207.439713 675.395447 32 78 78
407.916046 207.717621 676.300293 31 77 75
0.999926 221.983490 719.492432 65 138 144
43.123192 212.741074 689.535889 52 107 102
44.140736 213.027023 690.462708 53 108 103
124.687355 208.124756 674.573486 190 187 156
125.659599 208.182327 674.760071 189 186 155
160.146759 211.622513 685.910400 131 117 72
161.278732 211.857269 686.671326 133 120 75
162.372040 212.038773 687.259583 133 122 77
163.415726 212.153748 687.632263 133 124 81
165.449722 211.091019 684.187744 167 164 121
166.381470 211.066772 684.109192 182 179 136
167.296860 211.022171 683.964600 185 182 149
180.542664 209.845413 680.150452 199 190 157
182.667679 210.115158 681.024780 195 179 143
183.468231 209.948196 680.483582 185 171 134
187.905838 210.682312 682.863037 168 157 111
188.841232 210.667084 682.813721 164 151 99
189.739853 210.611221 682.632629 154 134 81
190.762695 210.693130 682.898071 141 118 64
191.791412 210.780640 683.181763 138 112 61
192.820953 210.868256 683.465698 138 114 70
193.783127 210.881638 683.509094 134 114 79
194.686050 210.830734 683.344116 143 127 101
197.558273 210.855469 683.424255 199 201 198
219.912903 211.344864 685.010498 211 208 191
220.892441 211.371201 685.095886 212 209 192
221.872208 211.397568 685.181274 212 209 192
222.856857 211.428314 685.280945 211 208 191
223.836044 211.453629 685.363037 209 206 189
224.803604 211.467819 685.408997 206 203 186
225.814972 211.522888 685.587463 203 200 183
226.813629 211.565659 685.726135 200 197 180
227.813171 211.608871 685.866211 198 195 178
228.813629 211.652603 686.007935 196 197 179
229.814499 211.696335 686.149719 196 197 179
230.829681 211.752838 686.332825 194 195 177
231.781754 211.751236 686.327637 192 193 175
232.818741 211.826889 686.572815 192 193 177
233.721741 211.780502 686.422485 192 193 177
234.694504 211.797485 686.477539 189 190 174
235.655960 211.804138 686.499084 185 186 170
236.625061 211.817596 686.542725 185 186 170
237.535080 211.778244 686.415222 184 185 169
238.528564 211.813370 686.528992 182 183 167
239.492432 211.821991 686.556946 180 181 163
240.536621 211.901306 686.814026 178 179 161
241.528900 211.934448 686.921448 177 178 160
242.425339 211.883575 686.756531 175 177 156
243.423843 211.921921 686.880859 175 177 156
251.634506 212.406311 688.450867 170 168 145
253.920441 212.718246 689.461914 165 163 140
266.856720 213.101410 690.703796 188 189 173
267.934326 213.195053 691.007324 194 196 182
288.704651 213.641449 692.454163 215 217 206
290.026093 213.906311 693.312622 215 217 206
291.324768 214.152649 694.111084 215 215 205
297.206970 213.527328 692.084290 211 199 183
298.104065 213.480972 691.934082 199 195 170
336.761627 208.829819 676.858765 53 129 125
337.985504 209.004959 677.426392 53 128 123
345.749390 209.716843 679.733765 29 98 93
363.035858 211.532700 685.619324 26 99 92
364.414246 211.780014 686.420898 25 98 91
391.349854 214.517715 695.294312 61 135 134
392.784363 214.773712 696.124084 64 138 137
419.607788 220.741547 715.466980 72 132 130
412.076294 213.740509 692.775269 57 109 105
406.426788 208.375839 675.387329 31 77 77
407.911163 208.655014 676.292175 30 76 74
0.999925 222.983368 719.492249 62 135 141
1.999727 222.969559 719.447693 66 139 145
43.140621 213.785751 689.814636 53 108 103
44.158932 214.074814 690.747314 54 109 104
103.818520 212.399353 685.341187 216 219 202
106.345154 211.740799 683.216248 210 213 192
107.392296 211.933472 683.837952 212 215 194
124.604782 208.923798 674.126770 193 190 157
155.373718 213.878647 690.114319 131 115 63
156.374893 213.936203 690.300110 131 114 62
163.602676 214.608231 692.468445 142 130 82
163.126480 212.732193 686.415161 146 138 91
164.001221 212.629486 686.083740 153 147 99
165.026001 212.721375 686.380249 158 154 106
165.463623 212.059708 684.245239 166 162 114
166.429245 212.078415 684.305603 175 173 124
167.337997 212.024841 684.132751 183 181 143
168.278473 212.011856 684.090881 189 185 148
172.202255 212.160782 684.571411 197 192 154
177.308411 211.442642 682.254211 183 182 151
179.644943 210.846436 680.330444 192 186 152
180.524658 210.769623 680.082642 195 187 151
181.855164 211.217194 681.526733 198 178 141
183.490906 210.919937 680.567627 183 169 134
187.883118 211.605743 682.780457 167 159 112
188.818726 211.590836 682.732361 166 153 101
189.717087 211.534561 682.550781 155 135 82
190.726608 211.602142 682.768860 143 120 66
191.756836 211.691956 683.058655 141 115 64
192.786148 211.779861 683.342285 140 116 70
193.816315 211.867844 683.626160 133 113 76
223.814819 212.385986 685.298035 210 207 190
224.789230 212.406769 685.365112 209 206 189
225.761963 212.425812 685.426575 206 203 186
226.778427 212.485657 685.619690 202 199 182
227.792480 212.542770 685.803955 199 196 179
228.777130 212.572067 685.898499 197 198 180
229.791702 212.628830 686.081604 196 197 179
230.794281 212.674057 686.227600 194 195 177
231.719772 212.648193 686.144104 191 192 174
232.686615 212.660324 686.183228 191 192 176
233.670746 212.688065 686.272766 192 193 177
234.645966 212.707520 686.335571 188 189 173
235.604721 212.711960 686.349854 183 184 168
236.573639 212.725479 686.393494 186 187 171
237.490860 212.692627 686.287476 183 184 168
238.445923 212.693756 686.291138 179 180 164
239.458679 212.746155 686.460205 178 179 161
240.477386 212.803406 686.644897 178 179 161
241.496674 212.860703 686.829773 178 179 161
242.495132 212.899277 686.954224 176 178 157
252.726608 213.477386 688.819641 172 170 147
253.848190 213.615646 689.265747 170 168 145
266.810883 214.024551 690.585144 188 189 173
267.894012 214.123169 690.903381 193 195 181
289.796600 214.699799 692.763977 216 218 207
291.119385 214.965637 693.621704 216 216 206
297.109589 214.418900 691.857544 212 200 184
298.024567 214.385406 691.749512 200 196 171
331.353119 209.919724 677.340271 42 123 117
332.343842 209.950928 677.440918 43 124 118
336.852783 212.198227 684.692200 44 125 119
337.717072 212.143417 684.515320 42 121 116
339.042206 212.377563 685.270874 37 116 111
357.650269 206.621780 666.698914 46 120 119
358.536896 206.598785 666.624695 51 123 122
403.967377 218.122833 703.808899 65 139 140
405.249908 218.286789 704.337952 66 140 141
415.327484 210.975006 680.745300 29 64 66
416.839203 211.261673 681.670288 31 62 67
0.999925 223.983231 719.492065 72 144 141
1.999727 223.969376 719.447510 64 131 140
2.999404 223.955505 719.402954 70 137 154
6.996875 223.900009 719.224670 76 148 144
7.995934 223.886154 719.180176 84 145 140
8.994868 223.872269 719.135620 86 140 140
9.993680 223.858414 719.091125 82 143 146
10.992367 223.844559 719.046570 71 146 152
102.695930 212.998962 684.207764 216 217 199
103.808670 213.331573 685.276184 216 219 200
155.516998 215.035843 690.750732 133 120 65
156.519119 215.093781 690.936768 135 120 65
157.516678 215.144745 691.100525 134 119 64
158.513641 215.194275 691.259644 133 118 63
161.583023 215.444046 692.061951 140 124 73
163.209702 213.795166 686.765320 151 136 93
164.110199 213.724915 686.539673 159 146 104
164.901306 213.513824 685.861633 170 156 117
167.379150 213.028015 684.301025 191 182 139
168.320694 213.016006 684.262512 191 184 142
169.168518 212.886215 683.845581 186 178 141
170.061981 212.814987 683.616760 175 170 138
172.097900 212.983047 684.156616 203 201 178
174.037582 213.029602 684.306152 208 207 189
175.988434 213.088684 684.495972 210 209 189
180.475647 211.657303 679.897949 189 182 138
181.881424 212.195007 681.625183 193 178 147
183.575912 211.963943 680.882935 182 173 140
184.471527 211.905746 680.696045 178 172 136
188.796219 212.514343 682.651001 167 158 103
189.668625 212.428864 682.376404 163 148 91
190.690521 212.510834 682.639709 141 122 66
191.720917 212.601410 682.930664 138 116 67
192.750015 212.689651 683.214172 137 118 78
193.680161 212.668396 683.145874 142 126 100
194.619904 212.657837 683.111938 148 136 122
207.066116 212.765182 683.456787 219 221 210
208.287292 213.042725 684.348267 218 220 209
220.851898 213.236313 684.970154 206 208 194
224.761719 213.333160 685.281250 206 207 191
225.759048 213.375641 685.417725 203 204 188
226.743195 213.405365 685.513184 201 202 186
227.741943 213.448517 685.651794 199 200 184
228.756805 213.506363 685.837585 196 197 179
229.768463 213.560730 686.012268 195 196 178
230.758865 213.595001 686.122314 194 195 177
231.761749 213.640457 686.268372 194 195 177
232.778152 213.697968 686.453125 193 195 174
233.622864 213.598038 686.132141 191 193 172
234.593903 213.613953 686.183228 187 189 168
235.553528 213.619415 686.200745 185 187 166
236.378311 213.502991 685.826782 185 184 164
237.385574 213.551651 685.983154 183 182 162
238.399796 213.606232 686.158386 179 178 158
239.409912 213.656677 686.320435 177 176 158
240.427597 213.713409 686.502747 179 178 160
241.444473 213.769028 686.681335 182 181 163
242.461868 213.824631 686.859985 179 177 162
266.793121 214.970016 690.539246 192 190 177
267.844849 215.043900 690.776550 195 195 183
289.621643 215.532379 692.345703 214 217 208
290.933258 215.791550 693.178223 214 217 208
292.248077 216.051392 694.012878 214 217 208
297.986481 215.319260 691.661133 202 198 187
298.929108 215.305847 691.618042 197 189 170
371.223785 214.868546 690.213318 65 140 145
406.440155 219.379730 704.704407 73 139 135
407.726166 219.544846 705.234802 77 140 132
409.014069 219.710205 705.765991 76 138 133
417.473969 222.652802 715.218323 70 135 131
418.548035 222.695404 715.355164 69 134 130
419.622467 222.737991 715.492004 70 132 129
412.292236 215.779129 693.138306 51 97 95
413.817841 211.632874 679.819458 25 65 65
415.325500 211.920044 680.742004 23 61 64
436.831329 220.880844 709.526367 77 96 111
437.661743 220.802322 709.274170 79 92 109
0.999925 224.983078 719.491821 65 129 128
1.999726 224.969162 719.447266 72 130 141
2.999403 224.955231 719.402710 70 131 149
3.998956 224.941284 719.358154 66 138 153
4.998385 224.927368 719.313599 61 144 152
5.997692 224.913422 719.269043 61 146 143
6.996873 224.899506 719.224487 70 147 139
7.995932 224.885590 719.179993 76 141 133
8.994865 224.871643 719.135437 78 137 135
9.993676 224.857727 719.090881 75 139 141
10.992364 224.843811 719.046387 68 141 147
11.990927 224.829880 719.001892 59 142 148
12.989367 224.815994 718.957397 61 144 148
41.795582 218.697800 699.391602 49 109 101
42.790703 218.816116 699.769897 49 109 101
71.581688 223.692795 715.365479 59 79 67
101.601036 213.647034 683.239319 220 219 201
102.686195 213.929581 684.142883 216 218 197
105.169075 213.180573 681.747559 204 212 188
106.210510 213.369308 682.351196 210 208 193
107.253792 213.558426 682.955994 208 209 193
159.696243 216.455750 692.221558 142 126 74
160.430206 216.148483 691.238892 143 127 75
162.357849 214.885391 687.199585 152 138 93
163.341385 214.922882 687.319458 157 144 100
164.466537 215.145172 688.030334 164 151 109
167.420334 214.031662 684.469360 191 182 141
168.366089 214.024704 684.447083 192 184 145
169.308380 214.013412 684.410950 189 183 147
170.062775 213.766068 683.619995 185 180 148
170.787445 213.484314 682.718933 204 200 173
175.559753 213.518600 682.828613 219 218 198
180.904068 213.106888 681.511963 182 175 133
181.907669 213.173050 681.723572 189 174 143
182.685822 212.975708 681.092407 185 172 140
183.581970 212.917252 680.905457 183 174 141
184.477631 212.858795 680.718567 180 174 138
188.779068 213.443665 682.588989 170 158 106
189.696899 213.408981 682.478088 156 141 86
190.659882 213.425232 682.530029 143 123 70
191.747742 213.580414 683.026245 144 123 76
192.702606 213.586639 683.046204 145 125 88
193.657562 213.592896 683.066162 155 139 113
225.724396 214.295319 685.312500 205 206 190
226.715012 214.331421 685.427979 203 204 188
227.712784 214.373962 685.564026 203 204 188
228.721924 214.426819 685.733032 198 199 181
229.723007 214.471680 685.876526 197 198 180
230.724487 214.516571 686.020081 196 197 179
231.726379 214.561447 686.163635 195 196 178
232.741501 214.618164 686.345032 194 196 175
233.570679 214.503693 685.978882 191 193 172
234.541824 214.519974 686.030945 188 190 169
235.508621 214.532135 686.069885 186 188 167
236.459442 214.529755 686.062195 187 186 166
237.375992 214.496368 685.955505 185 184 164
238.343597 214.509247 685.996643 181 180 160
239.358109 214.564041 686.171875 179 178 160
240.374146 214.619781 686.350159 180 179 161
241.386078 214.671417 686.515259 182 181 163
242.403214 214.727249 686.693848 179 177 162
253.241623 215.016464 687.618774 171 170 152
254.512802 215.283386 688.472351 171 170 152
266.744812 215.890594 690.414185 189 190 176
267.798248 215.966324 690.656372 193 193 181
290.689392 216.573227 692.597229 215 218 209
292.022797 216.848618 693.477905 214 217 206
297.892609 216.212387 691.443237 205 201 190
298.837921 216.201065 691.407104 201 193 174
300.089020 216.410355 692.076355 201 190 162
342.050446 212.014755 678.019287 52 124 123
406.332367 220.300659 704.517517 75 141 137
407.614410 220.464539 705.041565 78 141 133
408.919189 220.639847 705.602234 76 138 133
418.528198 223.678970 715.321228 70 132 129
419.602570 223.721741 715.458069 68 130 127
412.410797 216.804749 693.337646 49 95 93
413.873413 212.606201 679.910767 25 65 65
415.377747 212.892929 680.827698 26 61 65
437.609467 221.761551 709.189392 79 92 108
0.999914 225.980591 719.484070 51 99 101
1.999725 225.968979 719.447083 74 120 133
2.999402 225.954971 719.402527 70 123 141
3.998955 225.940979 719.357971 62 129 145
4.998384 225.926971 719.313416 56 137 141
5.997690 225.912994 719.268860 54 143 137
6.996871 225.898987 719.224304 62 146 133
7.995929 225.884995 719.179749 70 142 131
8.994864 225.871017 719.135254 71 136 130
9.993674 225.857025 719.090698 71 137 136
10.992361 225.843048 719.046204 67 138 142
11.990925 225.829086 719.001709 59 136 142
12.989364 225.815094 718.957214 63 138 144
41.815029 219.772003 699.717041 49 109 101
42.810783 219.891739 700.098267 49 109 101
47.182873 222.152679 707.296692 44 103 99
51.784039 225.061386 716.557556 42 99 92
101.606934 214.609024 683.278992 217 216 196
108.404442 218.744675 696.446167 206 206 182
143.737457 216.564423 689.504639 169 154 111
155.746841 215.943466 687.527588 144 129 74
156.907440 216.226089 688.427429 146 131 76
158.263275 216.772720 690.167786 148 133 78
161.553467 216.041901 687.841003 155 141 92
162.503799 216.034454 687.817261 161 147 102
163.599884 216.219727 688.407166 164 151 107
164.207596 215.761139 686.947083 168 156 116
166.408371 214.904526 684.219788 187 177 141
167.329849 214.866745 684.099487 195 187 150
168.258926 214.839081 684.011414 198 190 154
169.209976 214.839645 684.013184 196 190 156
170.130951 214.802200 683.893982 194 189 159
170.812241 214.464233 682.817993 211 207 180
172.637772 214.374374 682.531860 216 215 195
173.689270 214.501495 682.936584 216 217 199
174.685303 214.559113 683.120056 223 224 206
175.609558 214.528427 683.022339 225 224 204
176.533554 214.497757 682.924683 220 218 195
178.258270 214.289185 682.260681 209 204 174
180.911560 214.062897 681.540161 181 173 136
181.800491 213.994324 681.321838 177 164 132
182.692200 213.929733 681.116211 177 166 134
183.589676 213.872513 680.934021 183 174 141
184.479828 213.807388 680.726685 185 179 143
188.761917 214.372818 682.526917 169 157 105
189.814896 214.490829 682.902649 148 132 80
190.754837 214.480560 682.869934 145 125 74
191.725388 214.504639 682.946594 149 128 83
192.680161 214.510925 682.966614 153 135 99
193.834747 214.738495 683.691162 170 156 130
194.853149 214.813690 683.930603 187 179 166
216.993256 216.993256 690.869934 212 214 201
218.208832 217.247543 691.679565 212 214 201
226.679901 215.250671 685.321838 205 206 190
227.677536 215.293396 685.457886 205 206 190
228.670044 215.330948 685.577454 200 201 183
229.669281 215.374512 685.716125 199 200 182
230.668915 215.418091 685.854858 198 199 181
231.684189 215.475830 686.038696 196 197 179
232.684799 215.519547 686.177856 194 196 175
233.546509 215.434738 685.907898 192 194 173
234.489792 215.425583 685.878723 190 192 171
235.456360 215.437805 685.917664 187 189 168
236.423065 215.450058 685.956665 188 187 167
237.329697 215.407669 685.821716 185 184 164
238.287415 215.411835 685.834961 182 181 161
239.301682 215.466858 686.010132 181 180 162
240.315826 215.521347 686.183594 183 182 164
241.332809 215.577942 686.363770 183 182 164
242.344574 215.629440 686.527771 179 177 162
253.301727 216.023376 687.781982 173 171 156
254.563049 216.282898 688.608276 172 171 153
265.610474 216.707489 689.960083 188 186 171
266.696533 216.810852 690.289185 190 191 177
267.749908 216.887009 690.531677 193 194 180
290.485046 217.382843 692.110352 215 218 207
291.814148 217.656769 692.982422 214 217 206
293.116913 217.909286 693.786438 215 219 196
297.893097 217.173660 691.444336 208 204 192
298.854248 217.173813 691.444824 204 196 175
300.019257 217.321640 691.915466 204 193 165
335.750977 214.956711 684.385925 65 140 145
337.145081 215.239502 685.286316 62 137 140
340.579224 213.808075 680.728821 39 110 106
341.772400 213.962769 681.221375 45 115 113
371.208038 216.777817 690.184021 67 141 142
408.803223 221.557632 705.402161 78 139 134
410.113434 221.735992 705.969971 76 137 132
417.489258 224.649002 715.244507 71 133 130
418.508301 224.662415 715.287292 69 131 128
412.287628 217.703278 693.130554 45 91 89
413.868408 213.548523 679.902527 25 63 64
415.372742 213.836533 680.819458 27 62 66
437.603455 222.744110 709.179688 76 89 105
0.999924 226.982834 719.491455 39 70 73
1.999607 226.955444 719.404663 69 103 113
7.995927 226.884430 719.179565 65 141 128
8.994862 226.870392 719.135071 68 135 126
41.834492 220.847214 700.042725 49 109 101
42.829235 220.959930 700.400024 49 109 101
46.180325 223.041153 706.997131 46 103 94
47.191677 223.177307 707.428711 42 103 96
48.204262 223.313614 707.860779 43 104 97
50.789856 226.064667 716.581055 40 101 93
51.788944 226.078659 716.625427 40 100 92
52.788158 226.092682 716.669861 42 102 92
156.984406 217.289383 688.765137 151 136 81
157.925858 217.267700 688.696350 152 137 82
158.867096 217.245972 688.627563 154 138 86
159.808167 217.224289 688.558777 155 142 89
160.749054 217.202591 688.489990 159 146 94
162.673615 217.217117 688.536072 165 152 107
163.547470 217.106873 688.186584 168 156 114
168.280441 215.817276 684.098877 202 196 164
169.249512 215.840668 684.172974 199 194 164
170.835022 215.441956 682.909119 211 209 184
171.739960 215.386581 682.733643 214 213 192
173.810135 215.600555 683.411865 218 220 199
174.731842 215.565903 683.302063 221 223 202
175.653214 215.531250 683.192200 222 221 201
178.266830 215.247711 682.293457 212 207 178
179.169296 215.192749 682.119202 208 201 172
180.083649 215.152557 681.991821 195 186 155
180.906723 215.004303 681.521912 179 170 137
182.690063 214.873795 681.108215 169 159 124
183.596024 214.826263 680.957520 180 171 138
184.729965 215.044617 681.649658 189 183 147
189.800888 215.424011 682.852295 147 131 80
190.740768 215.413696 682.819580 148 127 80
191.701874 215.427368 682.862854 151 132 90
192.584106 215.352692 682.626160 162 146 113
194.705139 215.600327 683.411133 201 195 183
216.900345 217.860062 690.574097 213 215 202
218.151535 218.151535 691.497986 212 214 201
227.651932 216.221695 685.380798 204 205 189
228.634537 216.250168 685.471008 201 202 184
229.633606 216.293900 685.609619 201 202 184
230.633087 216.337631 685.748291 200 201 183
231.648682 216.396088 685.933594 197 198 180
232.660156 216.450226 686.105164 195 197 176
233.662064 216.495056 686.247253 194 196 175
234.432236 216.325699 685.710388 192 194 173
235.399506 216.338806 685.752014 190 192 171
236.315338 216.304779 685.644104 186 185 165
237.283401 216.318588 685.687927 184 183 163
238.231277 216.314011 685.673401 182 181 161
239.245270 216.369232 685.848450 182 181 161
240.290131 216.451813 686.110229 185 184 166
241.285187 216.489075 686.228333 185 184 166
242.285995 216.531189 686.361755 180 179 161
243.303040 216.587433 686.540039 176 174 159
253.314011 216.989746 687.815308 175 173 158
254.569305 217.245239 688.625183 173 172 154
265.607361 217.663803 689.951965 191 189 174
266.643311 217.726746 690.151489 191 192 176
267.673065 217.784164 690.333496 193 194 180
290.280975 218.191345 691.624146 214 220 208
291.605804 218.463760 692.487671 213 219 207
292.907166 218.716843 693.289917 218 216 201
297.776154 218.048981 691.172913 209 206 189
298.798157 218.093826 691.315063 206 198 177
299.765015 218.098251 691.329102 206 194 168
300.995819 218.294098 691.949890 201 187 158
296.234894 211.463272 670.297485 164 177 167
336.710449 215.913193 684.402893 67 141 144
406.151703 222.160080 704.204285 75 141 139
407.424805 222.320755 704.713562 80 139 135
408.708130 222.486176 705.237976 79 138 134
410.018219 222.665405 705.806091 77 138 133
411.308990 222.833252 706.338135 75 136 131
417.451294 225.622482 715.179443 72 132 130
413.811768 214.464096 679.809509 25 63 64
415.319366 214.755112 680.731995 27 62 66
437.605347 223.730667 709.182739 72 84 100
2.999443 227.957642 719.412231 66 100 112
42.849232 222.036911 700.726990 52 109 102
48.204529 224.298599 707.864685 40 106 96
50.794666 227.082047 716.648926 40 103 94
51.793846 227.096115 716.693298 41 103 92
52.797550 227.129074 716.797363 41 103 92
53.796757 227.141876 716.837708 41 101 91
68.904907 227.685791 718.554260 20 65 60
77.603905 226.842178 715.891907 60 93 84
102.706207 218.850616 690.671326 206 204 179
103.622223 218.758026 690.379089 204 203 173
105.624405 220.939133 697.262451 202 201 170
123.753883 213.756714 674.595459 169 162 120
151.458466 218.560333 689.755188 160 147 103
155.192993 218.419785 689.311646 152 137 82
156.159210 218.431274 689.347961 154 139 84
157.101532 218.409454 689.279053 157 142 87
158.043671 218.387604 689.210144 157 142 87
158.985611 218.365784 689.141235 157 144 91
161.755951 218.226959 688.703125 166 154 106
162.605850 218.083115 688.249207 167 156 111
164.289505 219.052673 691.309021 172 160 118
164.322647 217.823029 687.428406 177 168 129
167.409225 216.871017 684.423950 200 195 165
170.857834 216.419922 683.000305 212 210 185
171.772675 216.376633 682.863708 214 214 190
174.521530 216.254944 682.479614 215 217 196
175.707581 216.547729 683.403625 219 218 197
177.306549 216.181244 682.247070 216 212 187
178.242142 216.166000 682.198975 214 208 182
179.206161 216.185226 682.259583 208 201 173
180.110382 216.132446 682.093079 195 186 157
180.918777 215.965851 681.567322 179 170 141
183.621368 215.802444 681.051575 175 169 135
184.780411 216.050934 681.835815 188 184 147
185.633499 215.941010 681.488892 193 188 150
188.727631 216.230652 682.402954 164 150 105
189.811050 216.384613 682.888855 148 131 85
190.750839 216.374100 682.855652 148 129 86
191.690536 216.363571 682.822449 154 136 98
192.568954 216.284348 682.572449 174 159 130
216.877869 218.797134 690.502563 213 215 202
218.122849 219.083755 691.407043 212 214 201
226.619171 217.097336 685.138184 202 203 187
227.600540 217.125198 685.226074 201 202 186
228.599045 217.169083 685.364563 201 202 186
229.597946 217.212997 685.503174 202 203 185
230.597260 217.256927 685.641785 201 202 184
231.613251 217.316116 685.828613 198 199 181
232.624863 217.370773 686.001099 196 197 179
233.626602 217.415787 686.143127 195 197 176
234.628754 217.460785 686.285156 194 196 175
235.346344 217.242783 685.597168 191 193 172
236.269104 217.215149 685.509949 186 185 165
237.196503 217.191971 685.436829 183 182 162
238.175156 217.215744 685.511841 182 181 161
239.188904 217.271194 685.686829 183 182 162
240.242279 217.362045 685.973572 186 185 167
241.237869 217.400131 686.093750 185 184 166
242.227448 217.432510 686.195923 180 179 161
247.022522 217.456116 686.270447 168 166 145
250.296799 217.815536 687.404724 179 178 160
251.311890 217.867340 687.568176 180 178 163
252.325302 217.917297 687.725891 179 177 162
253.321793 217.952332 687.836426 176 174 159
264.491943 218.493332 689.543823 188 187 169
265.552429 218.577438 689.809204 189 190 172
291.384460 219.259583 691.961975 215 221 209
292.697693 219.523254 692.794128 219 215 204
294.015686 219.788773 693.632080 218 214 203
297.659271 218.923599 690.901672 210 207 188
298.720154 218.997406 691.134583 208 200 177
299.686829 219.001907 691.148804 206 194 168
335.222595 216.517700 683.308899 69 143 144
348.159973 219.283066 692.036133 71 142 138
349.597107 219.581680 692.978455 73 143 141
359.161102 216.636856 683.684875 77 148 144
360.599335 216.930481 684.611572 74 145 141
407.330048 223.248199 704.549683 80 139 135
409.937927 223.602509 705.667847 77 136 132
411.230072 223.771973 706.202637 75 134 130
417.410309 226.594147 715.109192 73 132 128
409.437439 219.135544 691.570496 54 104 103
