ply
            format ascii 1.0
            element vertex 250
            property float x
            property float y
            property float z
            property uchar blue
            property uchar green
            property uchar red
            end_header
            549.926710 2028.310394 1354.048157 126 133 142
465.176010 485.397291 964.229774 72 129 151
623.668909 1974.116135 1367.165184 59 66 83
483.826876 438.352537 1019.009399 131 157 164
631.756926 1079.196453 1477.425766 133 164 167
482.225323 539.086914 944.932938 96 143 157
573.817492 1714.360428 1118.616295 54 67 93
588.610029 1734.716797 1145.438099 124 124 140
498.020411 417.166901 951.192760 123 150 160
508.726072 461.905384 964.704418 37 87 109
582.464218 1642.966652 1058.287621 66 67 93
522.699356 506.746149 966.359711 46 96 114
543.147945 553.901148 987.293053 34 77 98
598.626995 1601.711082 1037.684536 118 119 133
680.431557 1689.431190 1155.504417 101 99 118
631.705427 1558.910561 1018.732166 116 138 150
685.569525 1834.052467 1133.483219 67 66 86
561.536789 318.718576 910.348701 16 64 98
561.536789 318.718576 910.348701 16 64 98
760.047817 1763.039207 1255.062675 167 158 144
601.971531 512.853718 962.689686 21 58 78
812.807178 1390.862370 1388.292694 84 88 89
641.226292 1499.650764 975.446510 51 64 90
583.607864 420.538616 884.929371 55 92 106
698.843908 1553.054619 1057.124805 68 78 95
571.240950 347.872686 842.297745 80 125 139
624.135828 477.631760 941.144276 89 134 148
892.946243 1891.341209 1406.369591 140 135 136
610.245085 261.781597 902.415085 74 111 125
868.533897 1342.278290 1379.316998 192 209 205
653.884029 489.863729 963.654995 35 78 97
768.961573 1609.023094 1125.766373 166 162 151
694.526768 1460.295582 975.271988 168 153 151
694.526768 1460.295582 975.271988 168 153 151
643.210173 521.757221 915.864372 231 226 217
627.808857 230.182433 903.911686 64 108 125
600.573063 288.605642 840.870857 150 175 185
615.586185 289.237213 864.221954 57 84 94
636.970377 412.927246 885.178947 14 64 92
697.814608 1433.186531 945.021343 130 137 140
689.796686 1416.641808 926.455402 91 82 92
709.754086 1433.116341 956.318188 75 81 94
796.018362 1573.409748 1105.452251 107 106 110
648.727942 254.147720 899.522018 215 224 221
623.705435 302.715611 839.974499 121 152 151
1066.946316 1553.424835 1602.054214 32 47 50
675.351429 1359.911251 868.440056 97 94 109
632.586861 273.735285 846.097374 212 222 216
623.788738 1279.009914 772.352076 113 108 110
1185.901356 1704.907608 1805.561256 63 92 99
691.518784 1374.573040 890.711498 68 73 82
617.501211 1297.936344 760.829353 111 114 119
765.193367 181.276429 1096.436691 127 144 147
650.696135 1313.447475 810.877323 100 105 120
658.096123 235.761786 884.286690 196 208 210
629.967165 299.287939 825.966167 215 222 219
834.312248 1586.028767 1126.675415 127 133 152
894.078064 1245.184708 1259.218407 108 101 92
668.213940 228.566003 896.745014 86 108 119
624.014997 1287.685394 756.473684 12 24 36
642.833138 270.877624 844.250011 211 221 221
671.049738 410.926867 886.187649 27 74 96
694.726133 186.601734 946.127415 119 141 152
853.796482 1516.911125 1154.955959 87 85 91
712.366247 516.494370 944.276810 109 150 159
682.371616 208.704638 902.770519 122 153 152
682.473660 225.957751 898.590088 186 195 192
651.063585 265.790153 836.866760 113 128 131
906.690598 1190.806770 1240.201187 32 47 50
973.866940 1251.521778 1342.474461 63 92 99
647.361612 289.165998 811.833382 218 220 214
846.203327 1528.976917 1079.524899 131 130 134
940.963268 1657.753563 1226.902485 6 12 23
744.058228 522.039270 936.466694 195 210 206
684.789085 265.982533 846.485710 166 185 188
724.513388 243.461967 890.820503 86 130 147
735.509396 206.802058 911.113548 59 78 93
735.509396 206.802058 911.113548 59 78 93
708.222532 268.961477 850.411701 117 154 168
736.713934 257.865191 895.630550 24 51 65
889.681053 1493.936253 1061.734009 120 122 130
748.262691 237.622023 886.224174 221 229 222
808.615589 700.901937 948.060131 73 112 121
799.930668 620.453978 928.706932 128 152 158
757.102442 220.969224 885.421181 130 151 153
757.102442 220.969224 885.421181 130 151 153
1011.275673 1192.425823 1215.250206 149 152 150
757.889032 229.608178 877.267838 118 135 138
757.889032 229.608178 877.267838 118 135 138
746.325254 282.561278 855.269051 210 217 212
746.325254 282.561278 855.269051 210 217 212
824.706364 716.597843 941.850090 200 214 212
824.706364 716.597843 941.850090 200 214 212
936.965752 1474.352074 1055.820084 103 110 127
812.427235 649.063778 911.786747 199 210 207
773.848629 255.220628 877.128506 122 147 151
833.793545 615.106678 936.281395 245 245 231
833.793545 615.106678 936.281395 245 245 231
781.202888 235.959315 877.336311 166 186 191
851.933956 627.169561 936.569214 70 113 122
877.264309 204.292989 984.386444 60 96 112
892.435932 227.810478 988.940334 20 70 93
1214.834785 1690.530968 1325.959682 142 139 134
1078.113461 1546.713448 1142.105389 89 96 105
1127.514172 1555.581093 1178.535366 32 34 42
1179.747200 1607.725525 1244.098186 145 143 135
1179.747200 1607.725525 1244.098186 145 143 135
825.417614 1238.337040 782.842016 178 170 163
825.417614 1238.337040 782.842016 178 170 163
1222.471428 1611.361313 1251.309490 30 35 44
1392.818069 1768.456268 1454.689407 135 141 136
1478.010559 1782.120132 1484.246349 61 70 79
1409.964848 1709.280205 1401.949978 78 79 77
1410.933590 1628.768349 1254.746819 77 92 111
1001.854897 1099.816513 756.395245 124 121 117
1001.854897 1099.816513 756.395245 124 121 117
652.844858 885.128307 1543.743229 44 85 107
584.727716 519.974899 1190.003967 212 221 218
584.727716 519.974899 1190.003967 212 221 218
659.235620 784.367418 1333.850670 236 235 225
659.235620 784.367418 1333.850670 236 235 225
577.784204 456.308460 1011.822605 111 149 161
581.105042 1371.354580 806.335449 135 137 138
622.870684 278.883600 1059.682369 219 223 217
634.652138 1402.857971 877.483749 63 67 92
688.086033 685.189295 1181.585407 32 90 109
698.073339 1492.388535 1006.302452 190 182 175
808.303452 1787.137985 1303.647041 168 162 151
626.180983 426.450539 931.815243 201 218 214
604.192591 304.872656 852.189636 151 171 176
633.727503 1319.878387 799.916410 57 60 81
619.428539 369.506812 866.735554 223 229 224
613.220263 294.623494 842.437458 196 207 204
676.817226 1359.083557 868.942165 137 139 150
659.020281 1340.507698 819.466972 87 89 100
679.899883 234.089351 1028.419113 105 143 155
659.293890 429.468822 901.398277 154 188 194
709.061956 202.170420 1025.446796 199 210 208
1030.939388 1644.781685 1714.667702 176 192 191
694.572639 231.599236 908.887768 130 147 143
867.110157 1601.604843 1152.466297 116 126 144
884.679127 1594.162560 1152.220154 93 103 110
911.560822 1615.165520 1198.398018 78 85 94
911.560822 1615.165520 1198.398018 78 85 94
750.348234 499.377823 954.985523 116 152 162
912.100887 1619.667816 1191.292381 6 19 35
736.831903 201.082993 917.549133 71 95 107
826.857185 1410.086727 965.144444 119 121 121
719.272566 257.515287 797.714806 215 222 217
878.218937 1428.688335 999.190617 104 112 125
733.434248 209.294748 826.280975 123 147 153
1012.291241 1264.754772 1303.969860 80 76 81
741.052961 200.649858 824.128532 196 214 215
798.844290 181.088138 945.760155 181 199 200
1094.753265 1347.241783 1418.503857 82 82 76
919.099808 1450.187492 1023.725224 26 29 44
803.026772 577.726555 876.780510 253 253 241
776.135445 199.490130 863.008976 89 119 136
774.757624 276.266360 841.100788 95 137 150
812.916279 624.536371 866.338062 191 210 207
952.060413 1460.580349 1048.015213 130 122 123
853.165913 519.220114 945.978260 248 244 233
962.970543 1469.463348 1053.604031 33 34 54
859.362507 174.514878 978.718376 186 207 208
982.963276 1474.693966 1069.392776 120 116 121
816.808796 561.181450 833.827400 191 213 208
844.827175 218.793273 927.187061 98 135 149
1004.449844 1487.395287 1082.047272 29 35 46
1049.140835 1526.133823 1139.821434 143 139 128
1080.878925 1564.429760 1185.386848 132 129 121
876.141644 183.655870 953.315449 215 216 206
1225.642967 1768.041420 1404.564857 90 99 112
960.365677 570.713043 1051.693058 80 114 127
890.548897 216.179323 946.219254 154 174 169
1090.181065 1537.891769 1154.289150 123 125 119
923.606014 244.774985 982.989502 27 54 80
905.287838 198.520064 953.058529 67 103 119
927.339363 216.507363 963.229752 124 156 162
728.729248 551.982403 393.234825 77 83 78
1300.359344 1739.275932 1403.879929 44 55 69
1157.416534 1729.010010 1129.621506 165 159 148
977.668476 298.113632 957.828808 50 101 117
1258.951283 1597.668171 1261.783886 111 114 119
1317.099667 1615.664482 1299.155521 139 135 134
569.031477 584.962130 315.322828 152 141 137
1347.828484 1634.079361 1316.520023 29 36 39
1191.247559 338.331366 1206.349850 118 156 168
1396.497631 1656.324005 1359.910011 111 116 119
1490.225601 1688.743782 1417.223740 122 125 123
853.021717 681.272268 525.817585 77 83 78
502.768183 253.023529 171.792257 11 16 19
718.415260 458.302355 339.937496 77 83 78
695.898914 420.916176 308.704019 77 83 78
687.916231 407.691908 297.635031 77 83 78
579.120970 1327.873611 761.931944 160 138 132
589.779806 1337.155056 763.921118 45 40 49
628.436041 1351.072598 795.067120 39 47 64
654.496574 1382.602882 842.992306 61 50 60
767.618656 1689.148331 1224.602032 134 122 116
767.618656 1689.148331 1224.602032 134 122 116
668.646717 1374.928665 848.144913 58 58 74
682.306480 1412.727547 889.553642 65 67 78
683.819151 1401.575565 893.477917 131 130 146
655.390644 565.975237 1052.657509 206 222 221
828.027725 1741.282272 1295.342541 185 173 163
738.098288 1420.442390 902.714443 63 64 85
694.204473 1241.430950 775.105286 117 107 113
694.204473 1241.430950 775.105286 117 107 113
775.683355 1433.145332 943.446159 43 41 61
655.832195 332.103229 807.108688 181 207 213
719.575024 478.924751 961.350632 206 225 222
685.539484 216.802096 918.574810 205 217 221
891.106033 1607.212257 1179.903507 17 20 35
865.763092 1775.980568 1028.916931 144 146 154
742.317104 528.846502 979.383373 185 212 216
742.317104 528.846502 979.383373 185 212 216
830.546761 1468.137741 987.278748 44 41 50
680.575848 285.466146 797.724295 87 123 139
706.953335 332.979226 847.233486 97 130 145
726.949739 185.876226 886.048698 79 105 121
752.507544 169.991088 958.918476 224 218 211
808.417797 737.663174 971.893787 98 126 133
723.503351 267.854476 813.899136 226 233 226
1036.098576 1345.645523 1415.108109 106 102 101
1056.251335 1245.230007 1405.957031 148 168 173
832.227421 639.478636 922.328758 107 139 144
827.533627 570.821142 909.120750 252 254 248
1019.303322 179.621100 1452.391815 168 182 188
901.815224 787.640381 1011.550236 133 167 173
888.794708 709.723997 964.902687 147 177 182
893.850231 672.194433 959.720516 87 126 140
1139.366817 1296.499062 1388.993549 103 98 99
974.088383 706.217575 1076.558781 86 129 148
1207.857513 1320.532322 1448.278046 84 85 83
1110.809517 1612.599564 1186.229897 53 55 66
1214.694691 1335.537910 1458.334923 96 99 97
1111.833858 1599.584675 1161.972141 49 60 74
1162.292385 1646.477127 1251.796055 101 91 84
1147.625065 1621.650887 1219.498444 139 127 123
1287.740231 1795.301628 1445.133305 87 96 109
1271.180344 1348.083687 1492.735195 69 74 77
1042.091274 1388.809490 1004.029942 49 60 74
1341.464806 1826.697731 1513.014507 57 58 62
1350.168133 1847.334862 1520.437241 12 14 24
1011.160374 267.597508 1057.850838 75 104 119
1553.271198 1067.105865 1862.318993 48 98 120
1110.148430 317.219400 1143.085480 123 158 171
1457.364655 1811.942101 1481.350136 67 73 80
1477.467823 1786.195564 1423.813725 49 46 62
1349.868107 1692.421150 1232.682419 88 93 114
